-0.0501388017615793 -0.06016489355169966 0.9946952338116102
-0.07316558145161527 -0.8586582556846938 -0.5344429427913161
0.20926386684494927 -0.16834482808898554 0.9587539485974657
0.19620661229320419 0.9827814559967967 -0.01686233147552427
0.5682010568903246 0.09562413050056634 0.7991800598340348
0.17384631126626598 0.9252437057562762 -0.27115837845435553
0.007526508580188092 -0.01921035593787601 1.0104248992818818
-0.2447379530992559 0.38430688338452423 0.8573883946899784
0.8461381421976193 -0.23311761148254578 0.4948001100080478
0.5474218233016396 -0.7789610780096305 -0.3217175286783274
0.24988377998380557 -0.6659984556375308 -0.6260606858019734
-0.7043435330624593 0.6737353021427877 -0.16078752281837363
0.45323982003863766 -0.8317952444653592 -0.3699621633394261
-0.03958618844118675 -0.13490089423476304 0.9698187117446404
0.11060700411572078 0.7913566044349003 0.6222703558396601
0.621534981050368 0.4575742902508672 0.6468109523969938
-0.5939971569181713 -0.6796272223520837 0.40812232641348833
-0.021259258336274556 0.19853383069172176 -0.9900531040134256
-0.5715923612669025 -0.7666471924888127 -0.34133475654660067
0.4946545210706186 0.8175732741677527 0.38022823192463623
0.8771728281327533 -0.057824964061157794 -0.41366129942443697
0.35265046666738836 -0.5342807539146163 -0.7543287775262602
0.013131691472403248 0.09917398999175155 0.9886395860784856
0.043923618871211594 0.17556511642902803 -0.9981995503675206
0.5889723114493497 -0.5789361678131185 0.5436900522029171
0.8379496116503802 -0.4987824652977767 0.12676698090570107
-0.06436643981338051 0.6864419420150365 0.7042196117134599
-0.2703960682272736 -0.1589638547768974 -0.9433475682996331
-0.525188113735983 0.3846022989455406 0.7902961585447091
0.12402253128769977 0.07970479489318058 0.9886996618219076
0.7147581342929797 0.5886500356551349 -0.39190514262240594
0.8410445052212769 0.3547518297107148 0.35604256876117
1.0344114469071477 -0.02521368830865851 -0.09490577799679248
0.7615600005578377 0.055032441995326614 -0.6345819562172891
-0.41197996686392097 -0.900495495400924 -0.11553472073317503
0.7695669504471322 0.649386105070372 0.20930258829057022
-0.1400540881667951 0.041910262578070345 -1.000492912256898
-0.5263885752712367 -0.0019385172853255775 0.8372784639328487
0.3346271032796006 -0.20469021358752912 -0.9105424886746593
-0.36755839172596483 -0.30008617450194053 0.9110775431548904
0.07826938221468645 -0.9936447346727633 -0.1239403593173878
0.8306527083757683 0.002984821601973321 0.5120622373514994
0.22524253222173823 0.027702705045713302 -1.0019341218575755
-0.06231719076910286 0.16487340431626232 0.957852894868053
0.12186858318063173 -0.11734455470895433 -1.0056816703341398
0.6269073255169909 0.2912202456743132 -0.7388991907581339
0.03801296140362678 -0.38081422552561256 0.8967895699282854
-0.03699589023480076 0.3898948796908291 -0.9243621982294302
-0.5295987665425747 0.2776959597378834 0.7619939303018022
0.24881475362610245 0.7850471826203753 0.5532053800941279
0.870862426343827 -0.026549922775779857 -0.4435123845718654
0.4743932239122197 0.4511512705791022 0.7679918404097923
-0.5064218772913063 0.8196212142452798 -0.2743663136620172
0.838279381276549 0.4008721067518909 -0.40592871249027207
0.03881368997911177 0.2916343892950284 -0.9608406520118095
0.06455034549656433 0.8548339931573252 -0.5032778215448452
0.09212730178109714 0.4030651132681238 0.936724207980628
-0.6106381309555121 0.10589736788527954 -0.7716849653004062
0.2025164910744585 -0.5359749190575669 0.8407525966769983
-0.8928810999164293 0.4650361593215412 0.1046664333103551
-0.11314041320717749 -0.8556137122024321 -0.5228044541495181
-0.7158202032856276 0.5022723810336442 0.48323506132805283
0.4581358451692017 -0.5420900081136028 0.715771032416421
-0.6907140254591893 0.36915729025350424 0.6539508928537564
0.0002795235286764355 0.22984780456247997 -0.934914465988876
-0.15250527854411272 -0.04989682805175932 1.0011279497251704
0.5147268022918721 -0.0023206017645443283 -0.909229021443032
0.2874410147382835 -0.4025245564190459 0.8589202080744532
-0.616134265911936 0.05573861793573059 0.7784605645070182
-0.033563506499406766 0.031928241099327494 -1.002980629398125
-0.058646195866161537 0.6120758667975348 -0.7629187256084594
0.013946667766692272 -0.003832557934667966 -1.005746718116579
-0.7335443127429344 -0.268099392988372 -0.6395500699243555
0.963729837987225 -0.19195358913371527 -0.24960871130374132
-0.703761288031535 -0.1910794135775445 -0.7200228301243006
-0.45044537160858517 -0.008068106844123117 -0.903187198568398
0.06827966552295696 0.10385017109934165 -1.0035669840833632
-0.7091676745015261 -0.4821785639334783 -0.5263035261191087
0.03453947708092843 0.37045442116707994 0.9406979108533093
-0.7637912785745621 -0.5157055381837866 -0.3628137426056553
-0.8049016294908713 0.4476167339619226 -0.24783066727853878
0.21908387542879273 0.7411969467702967 -0.6239732769101999
0.06671881768509871 0.9369535073434919 0.3190144875580209
-0.2797130125695725 0.633481765693937 -0.7006475423416031
0.949501728251126 0.4654750870696281 0.13937877237786805
0.5557406484367011 0.2755560974186512 0.7835355335498593
-0.020446601451488036 0.21343346844377442 -1.0075714497600865
-0.31541461434008905 0.3378888250992367 0.8550725085324724
0.38483077853848513 -0.6625830657853946 -0.5698258616210377
-0.013411761569431148 -0.01946432214235094 0.9615821754132647
0.3225219127962796 -0.7190702456697032 0.5749326862140839
0.2262332652898596 0.25431874322476467 0.8971375417067824
0.7683981842274324 0.6119333777026532 -0.16579414182972196
-0.12388499056679123 -0.6003487837976583 0.8239735963447627
-0.46910745497396505 -0.5269897473009819 0.6461166298453861
0.16285333365218208 -0.23609282373715862 0.9612501170619193
-0.7007029920137147 0.36496065735203903 0.6675873852282244
-0.47786740504725506 -0.5567664075628211 0.6805767422457734
-0.05420956732062559 -0.9828826727864618 -0.16124150493942815
0.3200421689632859 0.1636877965953234 -0.9344667480506208
0.8257657900807495 -0.5693538393599868 -0.14464938720037626
0.22755496217647417 0.3054414946089025 0.8999267806589996
-0.11296196359090738 0.294690884560723 -0.9608436860373308
0.47477750229349314 -0.3498715867567765 0.7599442176754303
0.0009450134397685836 0.31982918810485406 0.9557147641341245
-0.7413365855799594 0.49448743217257524 -0.35496400924960825
0.1277740038024209 0.18688339230450224 -1.0110270508042503
0.13005503010702346 -0.3238843022064205 -0.8931143689562341
0.7108012788457349 0.11160200682571056 -0.6611964072994662
0.13887876859011555 -0.4078452008233153 -0.9467771112626113
0.277545179351088 -0.6914698556000913 0.6702946263306276
0.29566172026899634 -0.3063801784433219 -0.8945356959083107
0.09234607091564152 0.5278211633195414 -0.82466487503353
0.1850567030856816 -0.6318464176060486 0.758266323523391
0.5532533124955322 0.08287377434089119 0.806007623034128
0.7786886711790652 -0.16437824640128157 0.6620772386851439
-0.6139316940128795 -0.7563438948707103 0.31760905678502577
0.3279932563635068 -0.13168376829575237 0.9323246547824151
0.530835756504078 -0.09987820157483983 0.8596658004488729
0.7577276737484246 0.6141415723366822 0.2033811487472679
-0.10991649161588814 -0.8104267163055073 0.5421029726777221
-0.7184866063822533 0.6318648454023937 -0.23476332167307717
-0.024583373366241997 0.8282502836259654 -0.6376899374469037
-0.7496046410969076 -0.18471328172099663 -0.6363513330982874
-0.0432483822497011 -0.8543341205322874 -0.5081812231751327
-0.44439680647235863 -0.7432854342188512 0.5114186438864645
-0.1790530766305877 0.42162552735740894 -0.8853226880444113
-0.34318151155196835 0.8782905060453552 0.27912460681613305
-0.6645182141533865 0.467652847567321 0.607489655694722
0.8017528902656186 -0.31531913873423745 -0.5366146923047049
0.7598208808171116 -0.5318347694152976 -0.35217227259529815
0.8029315422665025 0.0020479570894137746 0.6353837273946621
-0.8650753036761895 0.4078163563910908 -0.24550881521081083
-0.5706815666629474 0.21703775707315476 0.7685071200826314
-0.3022090083435779 0.0514022746284253 -0.9555082438418542
0.8503222245454994 0.5014058213488041 -0.04795757614915766
-0.5911201936007198 -0.6532586381144179 0.5018260871002579
-0.29325876015694413 -0.5563663352028686 0.7380597874715317
0.024104973543554786 0.07283031525496596 0.9977909367042641
0.13602937262229234 -0.1878787519560091 0.9960455107366601
-0.7968849631556822 0.4750620781916886 -0.40065922515797253
-0.7132988613258037 0.025210831568987943 0.7412445409802406
-0.00969677809523794 -0.01447442519602141 1.0000560560016112
0.7362808773405088 0.5829714245793286 0.22500903635381825
0.05874528785565529 0.11689960472490456 -0.9849697872791495
0.0023086595462338596 0.4583037905720082 -0.8879792233565248
-0.5459111129253488 0.15317878473592889 -0.7877495794718534
-0.12236992962107712 -0.08367190082567504 -0.9367110467657934
0.7247768563661037 -0.5887301715131799 -0.34498939411173185
0.4682550866694021 -0.8445841480652035 -0.14634133050936018
0.5670170490959607 -0.427356863740988 -0.6822746250101819
0.01578432456556612 0.9100226541970177 -0.42014913055724873
0.09786571609775722 -0.9817143914610469 -0.06611606835592733
0.6831019740461289 0.3615924070403455 0.6163136369322438
-0.11356331890923539 0.8271600289494024 0.5309251602672453
0.09606444529729807 0.8121462650184943 -0.570743497980853
-0.05306195679382337 -0.18891176029960183 0.9592188509912661
-0.5294230127091425 0.30963360822121777 0.8071360831023702
-0.25134360112700865 0.13788231129969733 -0.9301865269776456
0.4109082666630797 -0.5180000275634724 -0.7293684787192629
-0.013262042343193293 0.012394271639337734 0.9798607421536416
0.09059254346286812 -0.11917295847529252 -1.0158885296713582
-0.6061183346230483 0.3380867059243328 -0.683283343171238
0.116153602173848 0.6202978296875803 0.7656721652517291
-0.08245642002061572 0.035169025375270065 0.9803754828469939
-0.41924882177868483 0.28756032332031645 0.8910118008348137
-0.38084814741121026 0.07914403859751501 0.9175923371104392
-0.7678287360641385 0.6031960696757699 -0.20026363769307792
0.9010892072544334 0.15494452222931268 -0.43992996321219763
0.8975625108643569 0.2934114433810252 0.3769548014308279
0.20441684882456673 0.8320922793444114 0.5182580233356611
0.006238301010966507 -0.49397553478727324 -0.8469781140599864
-0.0037217966643752444 0.2607500893160414 0.9909822549347646
0.8936454171931701 -0.0005175374257910438 0.4554754060390135
-0.36522288296990874 -0.5036444383514078 -0.7579850290427963
0.541807339786399 -0.17750635023199782 0.7880589681430537
0.4664148454919383 0.060053681919796556 0.9061174012026404
-0.5944214300285596 -0.2526726828724966 0.7909974677518956
-0.21156104612327103 -0.6437463892700909 -0.7536733796269841
-0.004698099259586033 -0.36044258936590373 0.9582150867011373
0.046819536315720486 -0.10064125120159394 -0.9973920374613197
-0.3230550086428149 0.7875090944357084 -0.5302871473595668
0.9136274146452689 -0.24579346374582448 0.3184425964977602
-0.33318704622345235 -0.8511195564469615 -0.38616208948961533
0.5340171587417964 0.3978190040170619 -0.7672986349881351
0.035947126752728036 0.03420785602031062 -0.976853734351156
0.17747797941464702 -0.85335355806457 0.45379769595661695
-0.8848935671278937 -0.03315719885272162 0.48236500022916956
0.32260701697552274 -0.44652944040183873 -0.8822553475703837
-0.3481044950891188 -0.3977855612164732 -0.8855733025796468
-0.2582386087045288 -0.9395217132218521 0.20022676582420962
-0.06764211339621257 0.5332222387766914 -0.7813553342418152
-0.9411686059837743 -0.23016750511761233 0.050277041375449645
-0.052464092250868004 0.45188693700022653 -0.9048415082532275
0.13206622738061127 -0.23763554714029886 0.9737658230184756
-0.908209690740214 0.2047563773305188 -0.3362787116651738
-0.06573468059266611 0.06251925342760564 1.0034166509003462
0.138448567842726 0.570671455030837 -0.7967794350247713
-0.1964510613809824 0.3081054611489242 -0.9256292220000331
0.15962728231873996 0.010195069327652238 -0.971589013952203
0.6393326101971374 0.3814313441936023 -0.616173603613436
-0.32772058052980096 -0.8370769233168118 -0.44355390703266157
-0.6117311900157303 0.03531846874708014 -0.8051627393303579
-0.2956898327104362 -0.7720448209695883 0.5763697539839687
-0.8505390252426489 -0.4784723116689478 0.08217229826228799
-0.02192234547803372 -0.8582203885370892 0.5048392988363124
-0.21949866766101503 -0.7191947371808546 0.6590905679019252
0.1307943238632186 0.34669234123361486 0.9397252943657157
-0.6660029764261656 -0.1526699574168752 -0.7377209014499339
-0.7672168859143982 0.07642302078146755 -0.6567714259663997
0.9843868758967402 -0.14573857390976738 -0.07717521504867851
0.22744146190030176 0.6209195241648718 0.7621212277332192
0.018761670747202596 0.039510128320804125 0.9833788993587828
0.9698334310866101 -0.15801386358727554 -0.16627940351211765
-0.12732293594692304 -0.37125097044981187 0.9368547842995533
0.6665318937226997 -0.6859100991058149 -0.2266442102037674
-0.9669647661243885 0.18825842044840632 0.18641852286205984
0.9354692106434376 -0.3631659236870149 0.07032478987304563
0.4271353312695054 -0.8772476741501676 0.31463135702836076
0.43175040898434647 0.15119063991910103 0.9034330760966165
-0.7608145855392817 -0.31704332387897227 0.5837949886208241
0.08558514047775759 -0.9404877850043579 -0.3277051913194699
0.1612808757754114 -0.616225097770667 0.7425571311838812
-0.39682636051166503 0.14931879981713309 -0.9022499049993564
0.8009873378236891 -0.05023590487337715 0.5626183366455266
-0.010007177188504995 -0.16049657778167986 -0.9678240754347741
0.1603198732023809 0.5902236067239719 0.7832603333120454
0.10655671920286798 0.20533079239430002 0.9627079567512763
0.9741682531896979 0.01637931925165024 0.1527348439746845
0.09158101343848726 0.7833016920240342 -0.59973817753085
-0.2830673587787017 -0.9302553071614945 0.14140899299116316
0.2083905851331074 -0.8601950526516112 -0.36680007999610104
-0.10710178010057764 -0.171571177962717 -0.9564899181984122
-0.17212994718118288 -0.2296601956635337 -0.9697903345031545
0.10391300214096058 -0.19887529231722587 0.9833682026157429
-0.00648931339560337 -0.9908984056424927 -0.21890637778052816
-0.09041259853625137 0.3653455065288507 0.9138734130350189
0.9089293512607695 -0.3423060424648062 -0.0014407413764439187
-0.25499331733922054 0.009946154601886397 0.9881918466235091
-0.31236873665173215 0.6394373188541426 0.7100128701980971
0.101603577415438 0.06567416859186373 -1.0062105027491903
0.0012508603704643696 -0.00039960799928644527 -0.977553508437101
-0.3628665842529991 -0.6830672887745343 0.6840184985446859
-0.8809621127841474 0.16518116574923955 -0.46206188116751273
0.4550619933510291 -0.2649991178901477 0.8212685330639604
-0.27826078596162757 0.014479357471474748 0.9452884299871835
-0.4904975913744451 0.6936274976495408 0.49056708770341795
-0.380752594054999 0.6946147777814079 -0.5517983128490764
-0.04114769587315905 0.1680499560248195 -0.9948980206437444
-0.7828973205344316 0.22838164706635067 0.5374745774798393
-0.04073207787946677 0.08213138181747694 -0.9758854689626788
0.8893224871309204 -0.06651077976069815 -0.4817728114921033
-0.9355346446194415 -0.25652474724279223 0.27112933990059196
0.03802633896223886 -0.9387907096461867 -0.3905929613201697
0.035802763942913124 -0.5696091310152639 0.7673596118833694
-0.7411202143932899 0.30362627613469434 -0.5751905256679004
0.060206636278433596 0.05756163674460754 -0.985020251797521
0.5324496881095504 0.8204064474653502 -0.15755062290997732
-0.2853017233729839 -0.09718301658832854 0.9996918408960708
-0.34942828874152615 0.0863372901551468 0.9306730365342655
0.49105176825583535 -0.8654079632661239 0.005078125946993108
-0.07107299050658102 0.47939673571113806 -0.847948780232849
0.6748777147769756 -0.08420319542717375 0.7074416514276801
0.8761146572360577 -0.46834152328317086 -0.025725406365465588
0.29906241270129796 -0.28323024803107466 -0.9048613700004136
-0.18265140907718294 0.10810894833857321 -1.012855558503365
-0.53189533479703 -0.025879682248379984 -0.8423349171355884
-0.0029951816697826495 -0.001820925735201446 -1.0164798259917578
-0.4410784334035242 0.028751127393907793 0.8770482590035416
-0.9343158529231684 -0.316071637060927 -0.13541580797116579
-0.8236407019015328 0.23735700341443022 0.5372798718804588
-0.6199439541906098 -0.3003222711241039 0.7639466899382518
0.021822487346988353 -0.13479556722451888 0.9895834443973547
0.3414813444174654 -0.8406638585341398 0.33935789391256904
-0.28192182898948137 -0.46786355799798063 -0.8652184744778113
0.9703085283329299 0.2298551431647246 -0.0071775567546675184
-0.34090089695195375 -0.21688479500292976 -0.9312865442291988
-0.9627436836306623 -0.15838681643423402 0.1328360472498866
-0.16435396705123478 -0.9397473439739431 0.2772353532199788
-0.09392182811703868 0.01822828813535711 -0.9857983033444165
-0.42431274075799685 0.6821633528572578 -0.5560000026449783
0.24832657242371944 -0.3314275583625324 -0.8753878021847061
-0.6073606975138073 0.5702821749522227 0.5410627012330675
0.07566845629773 -0.07819872026632994 0.96074793837395
0.8834937237226078 0.40508211809192685 -0.4248083264123768
-0.01922616442883814 -0.9461549275535399 0.19917086408257875
0.7550768590206928 0.5373895386223303 -0.4140777258321368
-0.1013657171818148 -0.2761048412956954 -0.9394889715787894
0.5697800246968923 0.16939056918255319 -0.7976530446711464
0.6184880174062714 0.8032717247455378 -0.09958063390739165
-0.5574972557355587 -0.24512004979807706 -0.7980889231809927
0.6448240919038977 -0.6794492423846845 -0.36988916313914844
0.015789457716033496 0.2737330163781458 -0.9760580465747041
-0.018274950452163537 0.7311277442537202 0.707279234126671
0.589018654051639 0.034819554005798385 -0.8374980652427323
0.5279849546864066 0.8090388038028797 0.17885433739594872
-0.5364275354275987 0.7833263435625328 -0.26798854091338226
-0.00028362515602629764 0.45956337016492504 -0.869971966308448
0.28904126090554544 0.8749080694614846 0.34918952131310027
-0.8762409243607783 -0.42533174716354116 -0.23323174720039538
0.8224761161309165 -0.03779240074718938 0.6172512705169724
-0.14932741378844816 0.9631579076568794 -0.2048118642245061
-0.28951576801575407 -0.6783605000107463 -0.7132573571837802
-0.298969247396303 0.006148590782416414 -0.9629204118820128
-0.1312323932191863 0.5670798833155319 -0.7951423644683329
-0.600023397701891 -0.6947031441304973 -0.3664200569433361
-0.33006165609981714 -0.6765829694164109 -0.6264760495287034
-0.20029888744944582 -0.20864597189348524 -0.9236429240146176
-0.48798465217889236 -0.6401684691266855 0.5509974467478848
-0.031199331591645424 -0.28033518142413066 0.969361191701459
-0.2002624095836908 0.6875264451176963 -0.7048531217276351
-0.08754490150261446 -0.022130795628003224 -1.0054609117250985
-0.26539342784236014 -0.05210109345835529 -0.9704843917129155
0.4454287723232911 -0.8784313710387321 0.05622717731815143
0.24707737955768894 -0.666654435468627 -0.6957618086852204
0.4198475764796753 -0.09969983560848344 0.9114004270671283
0.41223909209549026 -0.08807485721927755 -0.8968518716260823
0.5328028839601162 -0.11114228864706996 -0.7722914815487986
-0.41647307575538883 0.4677839193851773 -0.8110235613266567
-0.8236477093912972 0.2404930500604448 -0.5177888203178121
-0.46180794822993404 -0.8700976689728485 -0.26801830244224356
0.49864832213493465 0.40386369390745064 0.71046425928597
0.3368703374602917 0.05340850389233758 -0.8961157870980443
0.03471361786652879 0.19086884302365711 0.9639496093245438
0.12486538610737077 -0.2494817087311958 -0.9534217700426454
0.10936452919390333 0.13182252324030408 -1.0049044293199063
-0.34635357966213354 0.974220468222967 0.02396152132612608
0.6668130352677826 0.7627428814395997 0.14859543054565527
-0.35277886649305673 -0.6463720398694497 -0.7053017585380134
-0.0224992419253887 -0.46281924030302724 0.8783266162029887
-0.2579712269674087 0.15281649624724886 0.9325455850499899
0.09801149030923917 -0.03081312681954967 0.9960854262362683
-0.701455514341458 0.7420074185586614 0.1835574527039691
0.669071925619204 0.48197612121204414 -0.544184395013338
-0.06600637549204079 -0.018936636596358417 -0.9848922109360922
0.1404151599453071 0.35340565793384043 0.9417554632345775
0.5633675169180403 -0.7959096288253764 0.13966331048864164
-0.05359566793650207 -0.03748983052068759 0.9733471330637844
0.16159300268970367 -0.6864729342185603 0.7343243906691533
0.6223158174241151 0.2862287557598158 -0.7535363244708942
0.16893758851368273 0.6123493399636074 0.7880527694902435
0.18209819729907853 0.2427040601528256 -0.9391657653444536
0.4330266437773856 0.007715746996033438 -0.9085379856050428
-0.002159991087589391 0.5254861538518361 0.8605715159471945
-0.04440370912343272 -0.07100769505541357 1.0317863693259324
0.06465105032962884 0.8509670431417127 0.5275175857205696
0.07499245179039937 0.14547353892627876 0.9852271975282563
-0.026493869658459363 -0.9725155982785751 0.07273646166059752
0.1781850996741025 -1.0017295168547744 -0.042338550173268256
0.12982133940716045 -0.04635593602714093 1.0055801702236997
0.08226738099260165 -0.38831316358579177 -0.893897854733412
0.184546192863767 -0.042438195936240354 0.9788775308147752
-0.935750784890995 0.12429919514659755 0.30142080119391057
0.18885427293033363 -0.12034913196302949 0.9526610247891315
0.8359148662101391 0.4649694705342271 -0.33860371832183833
-0.6668704713197959 -0.7382375429342992 -0.15230613051008562
-0.007513544150998556 0.014703781698017575 -0.9782717589264711
-0.24071182164213814 -0.18775126169852696 0.9478563293208608
-0.13045959145400796 -0.4173329242633609 -0.877088554319771
-0.11075762122885936 -0.5977326317987935 0.7586799415500868
-0.6202034622333743 0.19483833221727562 0.7444529145335195
-0.25898088872557457 0.15099518836894055 0.9735299880450828
-0.7718233603784425 0.38254825158257044 -0.49173556848083594
0.18682491083868513 -0.09819089296597204 0.9858357661540464
0.14572092036677778 -0.2582136655896145 0.9831888480184615
0.3794796531252277 -0.9281753416136542 -0.17946152940756366
-0.8359311017483436 -0.5048118603632897 -0.19133240060878884
-0.5307157335297455 0.6967823278580758 -0.5008354138278392
0.0007122798986291155 -0.3988131782042856 -0.9066560690629933
-0.6840761484075389 -0.4997085528229884 0.42614205051629267
-0.5425794783824606 -0.289110365810663 0.7786660130761784
0.3587447411473063 0.2900769970651328 -0.8738130123326348
-0.4420547725614057 0.48543764066909895 -0.7107282946433188
0.04423050545373693 -0.06494692320050116 -0.9805643833834842
0.38943875982339987 -0.849289092751593 -0.348272563809797
0.4589946280720109 -0.2192208943223879 -0.8567794300426873
-0.058448537429694684 0.5310192545513777 0.839378685023382
-0.010091015823843651 0.01593968568563293 0.9833777110679104
0.6631162380606812 -0.7073689043974807 -0.20499159655823565
-0.06483426769650248 -0.07185913887091078 1.001794493030505
-0.01503703245672134 -0.6153794851336145 0.7676914502335301
-0.5300763485803677 0.5640967621214239 -0.6469318449576769
0.16497447697430548 -0.9691299465798147 -0.2119520939504777
0.5139842337245524 0.7815016896154013 -0.3630119191241084
-0.34266403556291886 -0.6618782025160677 0.6483874053858104
-0.6931644842216119 0.2641961463425194 0.6409874185360918
0.010708232216416666 -0.3446632679868249 0.9229194665240334
-0.43700242275405554 -0.9062039699186104 0.0422742017535673
-0.0692249435181249 -0.12071581722907404 0.9686547074625378
0.8240949601477143 0.039834260251683344 0.5938362323987464
0.10072448213127795 0.4053165884130508 0.9079298020473634
0.7255743637003231 0.035267746906382326 -0.7129288038092366
0.4157669021967515 0.8248710275241032 0.3650337900698936
0.27956868960698816 -0.4840805748614243 -0.8018007187443742
0.3797643697361943 0.18479026295171136 -0.9105785634241378
0.369693669076786 -0.19973857777748003 -0.9085570831082094
-0.8607739821080505 -0.4437706808076105 -0.2273570988283781
0.048079339901230006 0.042480811939301574 0.9777679582644153
-0.25719648265569384 0.5065993519129662 -0.7888594654926928
0.2332313233977733 -0.12865974581294257 0.9373542093309153
0.3791626236611034 -0.5618277155018331 0.7068796561158432
-0.6478666187673763 0.49755664687173445 0.5541219893137427
-0.46700828991875337 0.740885736314831 0.5066092475957453
0.7694603708580723 0.6700518091561674 -0.031910818044087845
0.7352130294985608 -0.49344342892379656 0.453351355307714
0.258767139720187 -0.5975943187350516 0.7099684910723919
0.3423017009330388 0.44965941180601954 0.7920122938965041
-0.28952146457517786 -0.42896256393119686 0.8318810093757947
0.14317671888161154 -0.9904777957086844 0.01849829674814225
-0.21640569256450465 0.07196387441560544 -0.9389306410497947
-0.8135078281922329 -0.3489563557523389 -0.40067883005455235
-0.30941194894658786 -0.318156029306269 0.8645693274825526
0.8897415066455968 0.4070371783248351 0.17961992783752193
0.9523271653883397 0.35080270612352704 -0.02339671770353123
-0.3792420211885482 0.9507306438912572 0.1558161245570756
0.3713518190339946 0.19432921578306445 -0.9224586046952079
0.5618969721565973 -0.7216425646585396 -0.34562671276073104
-0.5727299922034516 -0.2034208078055363 -0.7928568414549243
0.7920024300912997 -0.6073815230175946 0.15893770489561126
-0.42146045420357386 0.8737921955741828 0.07442177253971465
0.11653166801002182 0.1622306448070881 1.0146196207628089
-0.4442855232111294 0.6677523712674817 -0.6397358551471163
-0.5158906307627217 -0.014749315861517842 0.856882682008912
-0.9459371568171905 0.3785040533216199 -0.07293663685157993
0.49765402482690724 0.7706896543704581 0.38727277363679646
-0.5124897298145702 0.8261693427506065 -0.3087680645929797
0.22010079209394282 -0.8748558032284512 -0.45007370286626797
-0.339949132240792 -0.7037376905641374 0.629581523056584
-0.14970947957444555 -0.898879712234951 -0.4882361376873066
-0.47244724831467516 0.8179619312455314 -0.25121689755077603
0.5786391978714513 0.7123764619643826 0.46827871506632823
-0.7392169617230714 0.596369068560471 -0.2923276951868472
0.745085014889107 -0.3058734770950765 0.548914580495893
0.34098445199499505 -0.8132940465472001 -0.5219795178428955
0.34488773650517174 -0.6371857218513316 -0.6751553601071949
-0.5770332650211134 -0.7538807182816957 0.23295670259370027
-0.5904124570521653 0.6972230986870878 0.4208460923333277
0.9574370186496496 -0.3266734543509827 0.04365999306478595
0.06360770624611468 0.42844750623788275 0.9390535233045451
0.5400919245853674 0.39834545174698316 -0.7654463278948621
0.1853434442933737 -0.3128608105517355 -0.950426564135987
0.041105529702498506 -0.39976670376683465 0.9203434395116689
-0.35458388220371134 0.3470020619839273 0.887547797989915
0.17475586776406354 -0.44925074787829405 0.841795742863335
-0.8824479769465545 0.3643960080846951 0.2745826399542898
-0.7231596385743123 0.2644737658313735 0.6171758491999357
-0.008924417926004298 -0.9705109369232536 0.1570728547270153
0.35705900013006703 -0.9251191851387167 0.09683195740397722
0.4917960603176442 -0.8302311411601861 0.42536914261634173
-0.7375737468938827 0.1811000768925597 0.6212099565457577
-0.7606841030067777 0.6976719846521656 -0.0892647269435046
0.13229646441195844 -0.39646559274596976 0.8999266563188991
-0.00001855254414492998 0.9193981859773873 -0.4368028087025146
0.3653276604776478 0.27461798815466315 -0.8690677262583201
0.4640214148333868 -0.6289287077732562 0.6259096066497286
0.36393420137365834 -0.24630717560884693 0.8805220843933986
-0.15538101196851886 0.06439231016879556 -0.9896378907076767
-0.05007163336184816 0.06929688599917978 1.0179859263176583
0.9499558887753334 0.3302981047064943 -0.006341814860134088
-0.06651889849041273 0.06659193496093718 1.0601175939235545
0.4298773687162443 -0.199566819335311 -0.8568384390182643
0.49428993942901833 0.5794729936695353 0.6028484041170741
0.4000283430581513 -0.7302379190893729 -0.5893801606034372
-0.01601817893918631 0.005360686240124886 1.0238059847835153
0.6408706235427412 0.34827257871790684 0.7027337272503605
-0.13892392870337192 -0.9646046346370942 -0.0852433676116793
0.6010520031432457 0.5048301949134801 0.6163880838804002
-0.5313896159623487 0.2928928914788313 -0.8023378560544195
-0.3362955189242873 0.09287816070360046 0.9609325573727375
0.9784806975451061 0.1014048584137732 -0.04755493832252275
0.021521240807355298 0.42450246750200676 0.8775394561508212
0.057908167551455204 0.9756044231798269 0.26219856133342806
-0.13717825123606886 -0.22987839322066578 0.9711736357469387
-0.985192545378728 -0.16276900195867772 -0.022991273225030796
0.9658045084827951 -0.0709355228183538 -0.1663564990717351
-0.03974113673219339 -0.04546231000557988 -1.0125197908915384
-0.00117485144527173 0.05121568680828397 1.0031006788647316
-0.09665499593477794 -0.8983049701341574 -0.38511491955230376
0.09926790391626669 -0.7303134875619359 -0.6714367377708804
-0.5327565576079685 -0.158466803728647 -0.8375853773684556
0.28128333156257074 0.5528147203156765 -0.7456687733013577
-0.38021119227545724 -0.41383745911230374 -0.8353567877647028
0.5868492717764094 0.24567927303266443 -0.7505601551585507
0.5668352303119306 0.16008045974343912 0.8135430929499872
0.18862453975682716 0.05084585613238743 -0.919619156330829
-0.6844800830866158 -0.18970800311016836 0.6956461638447274
0.011427379591171667 -0.5525705246690034 0.8072232309018255
0.5901518899335239 -0.6626657747494301 0.5175660221019429
0.6657795156627776 0.6614016328601392 0.41306203202432384
0.7236655669070484 -0.5639772503054223 0.34127811215330917
0.9415172602586671 -0.15687204231028326 0.011385693810742078
-0.5809896634464948 -0.07071192805588625 -0.8117052994207884
-0.0341721514443121 -0.23566027841598014 0.9405870901350635
-0.7939272416074221 -0.23322564248736316 0.5207246093944484
0.7592696608575105 0.417840237640951 -0.4797087615473609
-0.7587716592488286 0.3799349563854664 -0.5757770506163413
-0.08003029070438673 0.10793034526933229 1.0038165840985038
0.749124727887054 -0.008705323715935988 0.6416682068045914
0.1657555798432185 -0.02091093604824071 -1.0116813410713634
-0.38713300380285287 0.4486244131259451 -0.8215322761532717
1.076463646888139 2.7167363776776465 -2.1433231898247014
0.6454374199251321 1.687871818460799 -2.7912062052087476
-2.596599821627347 1.6710922410411924 -0.8020291613571093
-0.702873589867334 0.403467850344717 0.6305689731287127
1.0743723414803696 2.6929411755933383 -0.7679197291758976
1.5785068307914774 0.443530670003374 0.17675928921773806
-0.6117957242853 0.8973644202361895 -1.5023300814396126
-2.3193083244898918 1.4140491568765665 -0.005736238461199583
-0.6780757197644194 0.37003626455788263 -1.4293399404750253
-1.4382613731605798 -0.3223613255663026 2.9781906729285637
-1.286538733811052 2.498873457251288 -0.05279882847465576
-2.264175468576175 2.116957742305936 -0.28774388852761645
2.392074184717382 -0.32933284354527015 -2.473255553371613
1.0915755615038227 2.0731273138481967 -1.0824733674001792
-0.9154482315686127 -2.6103655301035733 0.2530281673533739
2.3479900941233334 2.108172304518755 1.2708546240432759
2.563946740339066 0.8262001353840975 1.762178303070017
0.052534471045804644 -2.2718252695292587 -1.7941177729338853
-2.1667387677698056 1.742238364846495 -2.8422958391504065
0.3241286235575705 -0.7865330069926757 1.8219703577315187
